-2093.168379 -1229.782345 2572.000000
-2093.870626 -1231.655003 2572.000000
-2094.572873 -1233.527661 2572.000000
-2095.275120 -1235.400320 2572.000000
-2095.977367 -1237.272978 2572.000000
-2096.679614 -1239.145636 2572.000000
-2097.381861 -1241.018295 2572.000000
-2098.084107 -1242.890953 2572.000000
-2098.786354 -1244.763612 2572.000000
-2099.488601 -1246.636270 2572.000000
-2100.190848 -1248.508928 2572.000000
-2100.893095 -1250.381587 2572.000000
-2101.595342 -1252.254245 2572.000000
-2102.297589 -1254.126903 2572.000000
-2102.999836 -1255.999562 2572.000000
-2103.702082 -1257.872220 2572.000000
-2104.404329 -1259.744878 2572.000000
-2105.106576 -1261.617537 2572.000000
-2105.808823 -1263.490195 2572.000000
-2106.511070 -1265.362853 2572.000000
-2107.213317 -1267.235512 2572.000000
-2107.915564 -1269.108170 2572.000000
-2108.617811 -1270.980828 2572.000000
-2109.320058 -1272.853487 2572.000000
-2110.022304 -1274.726145 2572.000000
-2110.724551 -1276.598804 2572.000000
-2112.000000 -1280.000000 2572.000000
-2111.962171 -1281.967084 2571.640629
-2111.924343 -1283.934169 2571.281258
-2111.886514 -1285.901253 2570.921886
-2111.848686 -1287.868338 2570.562515
-2111.810857 -1289.835422 2570.203144
-2111.773029 -1291.802507 2569.843773
-2111.735200 -1293.769591 2569.484402
-2111.697372 -1295.736676 2569.125030
-2111.659543 -1297.703760 2568.765659
-2111.621715 -1299.670845 2568.406288
-2111.583886 -1301.637929 2568.046917
-2111.546057 -1303.605014 2567.687546
-2111.508229 -1305.572098 2567.328174
-2111.470400 -1307.539183 2566.968803
-2111.432572 -1309.506267 2566.609432
-2111.394743 -1311.473352 2566.250061
-2111.356915 -1313.440436 2565.890690
-2111.319086 -1315.407521 2565.531318
-2111.281258 -1317.374605 2565.171947
-2111.243429 -1319.341690 2564.812576
-2111.205600 -1321.308774 2564.453205
-2111.167772 -1323.275858 2564.093834
-2111.129943 -1325.242943 2563.734462
-2111.092115 -1327.210027 2563.375091
-2111.054286 -1329.177112 2563.015720
-2111.016458 -1331.144196 2562.656349
-2110.978629 -1333.111281 2562.296978
-2110.940801 -1335.078365 2561.937606
-2110.902972 -1337.045450 2561.578235
-2110.865144 -1339.012534 2561.218864
-2110.827315 -1340.979619 2560.859493
-2110.789486 -1342.946703 2560.500122
-2110.751658 -1344.913788 2560.140750
-2110.713829 -1346.880872 2559.781379
-2110.676001 -1348.847957 2559.422008
-2110.638172 -1350.815041 2559.062637
-2110.600344 -1352.782126 2558.703266
-2110.562515 -1354.749210 2558.343894
-2110.524687 -1356.716295 2557.984523
-2110.486858 -1358.683379 2557.625152
-2110.449030 -1360.650464 2557.265781
-2110.411201 -1362.617548 2556.906409
-2110.373372 -1364.584633 2556.547038
-2110.335544 -1366.551717 2556.187667
-2110.297715 -1368.518801 2555.828296
-2110.259887 -1370.485886 2555.468925
-2110.222058 -1372.452970 2555.109553
-2110.184230 -1374.420055 2554.750182
-2110.146401 -1376.387139 2554.390811
-2110.108573 -1378.354224 2554.031440
-2110.070744 -1380.321308 2553.672069
-2110.032916 -1382.288393 2553.312697
-2109.995087 -1384.255477 2552.953326
-2109.957258 -1386.222562 2552.593955
-2109.919430 -1388.189646 2552.234584
-2109.881601 -1390.156731 2551.875213
-2109.843773 -1392.123815 2551.515841
-2109.805944 -1394.090900 2551.156470
-2109.768116 -1396.057984 2550.797099
-2109.730287 -1398.025069 2550.437728
-2109.692459 -1399.992153 2550.078357
-2109.654630 -1401.959238 2549.718985
-2109.616801 -1403.926322 2549.359614
-2109.578973 -1405.893407 2549.000243
-2109.541144 -1407.860491 2548.640872
-2109.503316 -1409.827575 2548.281501
-2109.465487 -1411.794660 2547.922129
-2109.427659 -1413.761744 2547.562758
-2109.389830 -1415.728829 2547.203387
-2109.352002 -1417.695913 2546.844016
-2109.314173 -1419.662998 2546.484645
-2109.276345 -1421.630082 2546.125273
-2109.238516 -1423.597167 2545.765902
-2109.200687 -1425.564251 2545.406531
-2109.162859 -1427.531336 2545.047160
-2109.125030 -1429.498420 2544.687789
-2109.087202 -1431.465505 2544.328417
-2109.049373 -1433.432589 2543.969046
-2109.011545 -1435.399674 2543.609675
-2108.973716 -1437.366758 2543.250304
-2108.935888 -1439.333843 2542.890933
-2108.898059 -1441.300927 2542.531561
-2108.860231 -1443.268012 2542.172190
-2108.822402 -1445.235096 2541.812819
-2108.784573 -1447.202181 2541.453448
-2108.746745 -1449.169265 2541.094077
-2108.708916 -1451.136350 2540.734705
-2108.671088 -1453.103434 2540.375334
-2108.633259 -1455.070518 2540.015963
-2108.595431 -1457.037603 2539.656592
-2108.557602 -1459.004687 2539.297221
-2108.519774 -1460.971772 2538.937849
-2108.481945 -1462.938856 2538.578478
-2108.444117 -1464.905941 2538.219107
-2108.406288 -1466.873025 2537.859736
-2108.368459 -1468.840110 2537.500365
-2108.330631 -1470.807194 2537.140993
-2108.292802 -1472.774279 2536.781622
-2108.254974 -1474.741363 2536.422251
-2108.217145 -1476.708448 2536.062880
-2108.179317 -1478.675532 2535.703509
-2108.141488 -1480.642617 2535.344137
-2108.103660 -1482.609701 2534.984766
-2108.065831 -1484.576786 2534.625395
-2108.028002 -1486.543870 2534.266024
-2107.990174 -1488.510955 2533.906653
-2107.952345 -1490.478039 2533.547281
-2107.914517 -1492.445124 2533.187910
-2107.876688 -1494.412208 2532.828539
-2107.838860 -1496.379292 2532.469168
-2107.801031 -1498.346377 2532.109797
-2107.763203 -1500.313461 2531.750425
-2107.725374 -1502.280546 2531.391054
-2107.687546 -1504.247630 2531.031683
-2107.649717 -1506.214715 2530.672312
-2107.611888 -1508.181799 2530.312941
-2107.574060 -1510.148884 2529.953569
-2107.536231 -1512.115968 2529.594198
-2107.498403 -1514.083053 2529.234827
-2107.460574 -1516.050137 2528.875456
-2107.422746 -1518.017222 2528.516084
-2107.384917 -1519.984306 2528.156713
-2107.347089 -1521.951391 2527.797342
-2107.309260 -1523.918475 2527.437971
-2107.271432 -1525.885560 2527.078600
-2107.233603 -1527.852644 2526.719228
-2107.195774 -1529.819729 2526.359857
-2107.157946 -1531.786813 2526.000486
-2107.120117 -1533.753898 2525.641115
-2107.082289 -1535.720982 2525.281744
-2107.044460 -1537.688066 2524.922372
-2107.006632 -1539.655151 2524.563001
-2106.968803 -1541.622235 2524.203630
-2106.930975 -1543.589320 2523.844259
-2106.893146 -1545.556404 2523.484888
-2106.855318 -1547.523489 2523.125516
-2106.817489 -1549.490573 2522.766145
-2106.779660 -1551.457658 2522.406774
-2106.741832 -1553.424742 2522.047403
-2106.704003 -1555.391827 2521.688032
-2106.666175 -1557.358911 2521.328660
-2106.628346 -1559.325996 2520.969289
-2106.590518 -1561.293080 2520.609918
-2106.552689 -1563.260165 2520.250547
-2106.514861 -1565.227249 2519.891176
-2106.477032 -1567.194334 2519.531804
-2106.439203 -1569.161418 2519.172433
-2106.401375 -1571.128503 2518.813062
-2106.363546 -1573.095587 2518.453691
-2106.325718 -1575.062672 2518.094320
-2106.287889 -1577.029756 2517.734948
-2106.250061 -1578.996841 2517.375577
-2106.212232 -1580.963925 2517.016206
-2106.174404 -1582.931009 2516.656835
-2106.136575 -1584.898094 2516.297464
-2106.098747 -1586.865178 2515.938092
-2106.060918 -1588.832263 2515.578721
-2106.023089 -1590.799347 2515.219350
-2105.985261 -1592.766432 2514.859979
-2105.947432 -1594.733516 2514.500608
-2105.909604 -1596.700601 2514.141236
-2105.871775 -1598.667685 2513.781865
-2105.833947 -1600.634770 2513.422494
-2105.796118 -1602.601854 2513.063123
-2105.758290 -1604.568939 2512.703752
-2105.720461 -1606.536023 2512.344380
-2105.682633 -1608.503108 2511.985009
-2105.644804 -1610.470192 2511.625638
-2105.606975 -1612.437277 2511.266267
-2105.569147 -1614.404361 2510.906896
-2105.531318 -1616.371446 2510.547524
-2105.493490 -1618.338530 2510.188153
-2105.455661 -1620.305615 2509.828782
-2105.417833 -1622.272699 2509.469411
-2105.380004 -1624.239783 2509.110040
-2105.342176 -1626.206868 2508.750668
-2105.304347 -1628.173952 2508.391297
-2105.266519 -1630.141037 2508.031926
-2105.228690 -1632.108121 2507.672555
-2105.190861 -1634.075206 2507.313184
-2105.153033 -1636.042290 2506.953812
-2105.115204 -1638.009375 2506.594441
-2105.077376 -1639.976459 2506.235070
-2105.039547 -1641.943544 2505.875699
-2105.001719 -1643.910628 2505.516328
-2104.963890 -1645.877713 2505.156956
-2104.926062 -1647.844797 2504.797585
-2104.888233 -1649.811882 2504.438214
-2104.850404 -1651.778966 2504.078843
-2104.812576 -1653.746051 2503.719472
-2104.774747 -1655.713135 2503.360100
-2104.736919 -1657.680220 2503.000729
-2104.699090 -1659.647304 2502.641358
-2104.661262 -1661.614389 2502.281987
-2104.623433 -1663.581473 2501.922616
-2104.585605 -1665.548557 2501.563244
-2104.547776 -1667.515642 2501.203873
-2104.509948 -1669.482726 2500.844502
-2104.472119 -1671.449811 2500.485131
-2104.434290 -1673.416895 2500.125759
-2104.396462 -1675.383980 2499.766388
-2104.358633 -1677.351064 2499.407017
-2104.320805 -1679.318149 2499.047646
-2104.282976 -1681.285233 2498.688275
-2104.245148 -1683.252318 2498.328903
-2104.207319 -1685.219402 2497.969532
-2104.169491 -1687.186487 2497.610161
-2104.131662 -1689.153571 2497.250790
-2104.093834 -1691.120656 2496.891419
-2104.056005 -1693.087740 2496.532047
-2104.018176 -1695.054825 2496.172676
-2103.980348 -1697.021909 2495.813305
-2103.942519 -1698.988994 2495.453934
-2103.904691 -1700.956078 2495.094563
-2103.866862 -1702.923163 2494.735191
-2103.829034 -1704.890247 2494.375820
-2103.791205 -1706.857332 2494.016449
-2103.753377 -1708.824416 2493.657078
-2103.715548 -1710.791500 2493.297707
-2103.677720 -1712.758585 2492.938335
-2103.639891 -1714.725669 2492.578964
-2103.602062 -1716.692754 2492.219593
-2103.564234 -1718.659838 2491.860222
-2103.526405 -1720.626923 2491.500851
-2103.488577 -1722.594007 2491.141479
-2103.450748 -1724.561092 2490.782108
-2103.412920 -1726.528176 2490.422737
-2103.375091 -1728.495261 2490.063366
-2103.337263 -1730.462345 2489.703995
-2103.299434 -1732.429430 2489.344623
-2103.261605 -1734.396514 2488.985252
-2103.223777 -1736.363599 2488.625881
-2103.185948 -1738.330683 2488.266510
-2103.148120 -1740.297768 2487.907139
-2103.110291 -1742.264852 2487.547767
-2103.072463 -1744.231937 2487.188396
-2103.034634 -1746.199021 2486.829025
-2102.996806 -1748.166106 2486.469654
-2102.958977 -1750.133190 2486.110283
-2102.921149 -1752.100274 2485.750911
-2102.883320 -1754.067359 2485.391540
-2102.845491 -1756.034443 2485.032169
-2102.807663 -1758.001528 2484.672798
-2102.769834 -1759.968612 2484.313427
-2102.732006 -1761.935697 2483.954055
-2102.694177 -1763.902781 2483.594684
-2102.656349 -1765.869866 2483.235313
-2102.618520 -1767.836950 2482.875942
-2102.580692 -1769.804035 2482.516571
-2102.542863 -1771.771119 2482.157199
-2102.505035 -1773.738204 2481.797828
-2102.467206 -1775.705288 2481.438457
-2102.429377 -1777.672373 2481.079086
-2102.391549 -1779.639457 2480.719715
-2102.353720 -1781.606542 2480.360343
-2102.315892 -1783.573626 2480.000972
-2102.278063 -1785.540711 2479.641601
-2102.240235 -1787.507795 2479.282230
-2102.202406 -1789.474880 2478.922859
-2102.164578 -1791.441964 2478.563487
-2102.126749 -1793.409049 2478.204116
-2102.088921 -1795.376133 2477.844745
-2102.051092 -1797.343217 2477.485374
-2102.013263 -1799.310302 2477.126003
-2101.975435 -1801.277386 2476.766631
-2101.937606 -1803.244471 2476.407260
-2101.899778 -1805.211555 2476.047889
-2101.861949 -1807.178640 2475.688518
-2101.824121 -1809.145724 2475.329147
-2101.786292 -1811.112809 2474.969775
-2101.748464 -1813.079893 2474.610404
-2101.710635 -1815.046978 2474.251033
-2101.672806 -1817.014062 2473.891662
-2101.634978 -1818.981147 2473.532291
-2101.597149 -1820.948231 2473.172919
-2101.559321 -1822.915316 2472.813548
-2101.521492 -1824.882400 2472.454177
-2101.483664 -1826.849485 2472.094806
-2101.445835 -1828.816569 2471.735434
-2101.408007 -1830.783654 2471.376063
-2101.370178 -1832.750738 2471.016692
-2101.332350 -1834.717823 2470.657321
-2101.294521 -1836.684907 2470.297950
-2101.256692 -1838.651991 2469.938578
-2101.218864 -1840.619076 2469.579207
-2101.181035 -1842.586160 2469.219836
-2101.143207 -1844.553245 2468.860465
-2101.105378 -1846.520329 2468.501094
-2101.067550 -1848.487414 2468.141722
-2101.029721 -1850.454498 2467.782351
-2100.991893 -1852.421583 2467.422980
-2100.954064 -1854.388667 2467.063609
-2100.916236 -1856.355752 2466.704238
-2100.878407 -1858.322836 2466.344866
-2100.840578 -1860.289921 2465.985495
-2100.802750 -1862.257005 2465.626124
-2100.764921 -1864.224090 2465.266753
-2100.727093 -1866.191174 2464.907382
-2100.689264 -1868.158259 2464.548010
-2100.651436 -1870.125343 2464.188639
-2100.613607 -1872.092428 2463.829268
-2100.575779 -1874.059512 2463.469897
-2100.537950 -1876.026597 2463.110526
-2100.500122 -1877.993681 2462.751154
-2100.462293 -1879.960765 2462.391783
-2100.424464 -1881.927850 2462.032412
-2100.386636 -1883.894934 2461.673041
-2100.348807 -1885.862019 2461.313670
-2100.310979 -1887.829103 2460.954298
-2100.273150 -1889.796188 2460.594927
-2100.235322 -1891.763272 2460.235556
-2100.197493 -1893.730357 2459.876185
-2100.159665 -1895.697441 2459.516814
-2100.121836 -1897.664526 2459.157442
-2100.084007 -1899.631610 2458.798071
-2100.046179 -1901.598695 2458.438700
-2100.008350 -1903.565779 2458.079329
-2099.970522 -1905.532864 2457.719958
-2099.932693 -1907.499948 2457.360586
-2099.894865 -1909.467033 2457.001215
-2099.857036 -1911.434117 2456.641844
-2099.819208 -1913.401202 2456.282473
-2099.781379 -1915.368286 2455.923102
-2099.743551 -1917.335371 2455.563730
-2099.705722 -1919.302455 2455.204359
-2099.667893 -1921.269540 2454.844988
-2099.630065 -1923.236624 2454.485617
-2099.592236 -1925.203708 2454.126246
-2099.554408 -1927.170793 2453.766874
-2099.516579 -1929.137877 2453.407503
-2099.478751 -1931.104962 2453.048132
-2099.440922 -1933.072046 2452.688761
-2099.403094 -1935.039131 2452.329390
-2099.365265 -1937.006215 2451.970018
-2099.327437 -1938.973300 2451.610647
-2099.289608 -1940.940384 2451.251276
-2099.251779 -1942.907469 2450.891905
-2099.213951 -1944.874553 2450.532534
-2099.176122 -1946.841638 2450.173162
-2099.138294 -1948.808722 2449.813791
-2099.100465 -1950.775807 2449.454420
-2099.062637 -1952.742891 2449.095049
-2099.024808 -1954.709976 2448.735678
-2098.986980 -1956.677060 2448.376306
-2098.949151 -1958.644145 2448.016935
-2098.911323 -1960.611229 2447.657564
-2098.873494 -1962.578314 2447.298193
-2098.835665 -1964.545398 2446.938822
-2098.797837 -1966.512482 2446.579450
-2098.760008 -1968.479567 2446.220079
-2098.722180 -1970.446651 2445.860708
-2098.684351 -1972.413736 2445.501337
-2098.646523 -1974.380820 2445.141966
-2098.608694 -1976.347905 2444.782594
-2098.570866 -1978.314989 2444.423223
-2098.533037 -1980.282074 2444.063852
-2098.495208 -1982.249158 2443.704481
-2098.457380 -1984.216243 2443.345109
-2098.419551 -1986.183327 2442.985738
-2098.381723 -1988.150412 2442.626367
-2098.343894 -1990.117496 2442.266996
-2098.306066 -1992.084581 2441.907625
-2098.268237 -1994.051665 2441.548253
-2098.230409 -1996.018750 2441.188882
-2098.192580 -1997.985834 2440.829511
-2098.154752 -1999.952919 2440.470140
-2098.116923 -2001.920003 2440.110769
-2098.079094 -2003.887088 2439.751397
-2098.041266 -2005.854172 2439.392026
-2098.003437 -2007.821257 2439.032655
-2097.965609 -2009.788341 2438.673284
-2097.927780 -2011.755425 2438.313913
-2097.889952 -2013.722510 2437.954541
-2097.852123 -2015.689594 2437.595170
-2097.814295 -2017.656679 2437.235799
-2097.776466 -2019.623763 2436.876428
-2097.738638 -2021.590848 2436.517057
-2097.700809 -2023.557932 2436.157685
-2097.662980 -2025.525017 2435.798314
-2097.625152 -2027.492101 2435.438943
-2097.587323 -2029.459186 2435.079572
-2097.549495 -2031.426270 2434.720201
-2097.511666 -2033.393355 2434.360829
-2097.473838 -2035.360439 2434.001458
-2097.436009 -2037.327524 2433.642087
-2097.398181 -2039.294608 2433.282716
-2097.360352 -2041.261693 2432.923345
-2097.322524 -2043.228777 2432.563973
-2097.284695 -2045.195862 2432.204602
-2097.246866 -2047.162946 2431.845231
-2097.209038 -2049.130031 2431.485860
-2097.171209 -2051.097115 2431.126489
-2097.133381 -2053.064199 2430.767117
-2097.095552 -2055.031284 2430.407746
-2097.057724 -2056.998368 2430.048375
-2097.019895 -2058.965453 2429.689004
-2096.982067 -2060.932537 2429.329633
-2096.944238 -2062.899622 2428.970261
-2096.906409 -2064.866706 2428.610890
-2096.868581 -2066.833791 2428.251519
-2096.830752 -2068.800875 2427.892148
-2096.792924 -2070.767960 2427.532777
-2096.755095 -2072.735044 2427.173405
-2096.717267 -2074.702129 2426.814034
-2096.679438 -2076.669213 2426.454663
-2096.641610 -2078.636298 2426.095292
-2096.603781 -2080.603382 2425.735921
-2096.565953 -2082.570467 2425.376549
-2096.528124 -2084.537551 2425.017178
-2096.490295 -2086.504636 2424.657807
-2096.452467 -2088.471720 2424.298436
-2096.414638 -2090.438805 2423.939065
-2096.376810 -2092.405889 2423.579693
-2096.338981 -2094.372973 2423.220322
-2096.301153 -2096.340058 2422.860951
-2096.263324 -2098.307142 2422.501580
-2096.225496 -2100.274227 2422.142209
-2096.187667 -2102.241311 2421.782837
-2096.149839 -2104.208396 2421.423466
-2096.112010 -2106.175480 2421.064095
-2096.074181 -2108.142565 2420.704724
-2096.036353 -2110.109649 2420.345353
-2095.998524 -2112.076734 2419.985981
-2095.960696 -2114.043818 2419.626610
-2095.922867 -2116.010903 2419.267239
-2095.885039 -2117.977987 2418.907868
-2095.847210 -2119.945072 2418.548497
-2095.809382 -2121.912156 2418.189125
-2095.771553 -2123.879241 2417.829754
-2095.733725 -2125.846325 2417.470383
-2095.695896 -2127.813410 2417.111012
-2095.658067 -2129.780494 2416.751641
-2095.620239 -2131.747579 2416.392269
-2095.582410 -2133.714663 2416.032898
-2095.544582 -2135.681748 2415.673527
-2095.506753 -2137.648832 2415.314156
-2095.468925 -2139.615916 2414.954784
-2095.431096 -2141.583001 2414.595413
-2095.393268 -2143.550085 2414.236042
-2095.355439 -2145.517170 2413.876671
-2095.317610 -2147.484254 2413.517300
-2095.279782 -2149.451339 2413.157928
-2095.241953 -2151.418423 2412.798557
-2095.204125 -2153.385508 2412.439186
-2095.166296 -2155.352592 2412.079815
-2095.128468 -2157.319677 2411.720444
-2095.090639 -2159.286761 2411.361072
-2095.052811 -2161.253846 2411.001701
-2095.014982 -2163.220930 2410.642330
-2094.977154 -2165.188015 2410.282959
-2094.939325 -2167.155099 2409.923588
-2094.901496 -2169.122184 2409.564216
-2094.863668 -2171.089268 2409.204845
-2094.825839 -2173.056353 2408.845474
-2094.788011 -2175.023437 2408.486103
-2094.750182 -2176.990522 2408.126732
-2094.712354 -2178.957606 2407.767360
-2094.674525 -2180.924690 2407.407989
-2094.636697 -2182.891775 2407.048618
-2094.598868 -2184.858859 2406.689247
-2094.561040 -2186.825944 2406.329876
-2094.523211 -2188.793028 2405.970504
-2094.485382 -2190.760113 2405.611133
-2094.447554 -2192.727197 2405.251762
-2094.409725 -2194.694282 2404.892391
-2094.371897 -2196.661366 2404.533020
-2094.334068 -2198.628451 2404.173648
-2094.296240 -2200.595535 2403.814277
-2094.258411 -2202.562620 2403.454906
-2094.220583 -2204.529704 2403.095535
-2094.182754 -2206.496789 2402.736164
-2094.144926 -2208.463873 2402.376792
-2094.107097 -2210.430958 2402.017421
-2094.069268 -2212.398042 2401.658050
-2094.031440 -2214.365127 2401.298679
-2093.993611 -2216.332211 2400.939308
-2093.955783 -2218.299296 2400.579936
-2093.917954 -2220.266380 2400.220565
-2093.880126 -2222.233464 2399.861194
-2093.842297 -2224.200549 2399.501823
-2093.804469 -2226.167633 2399.142452
-2093.766640 -2228.134718 2398.783080
-2093.728811 -2230.101802 2398.423709
-2093.690983 -2232.068887 2398.064338
-2093.653154 -2234.035971 2397.704967
-2093.615326 -2236.003056 2397.345596
-2093.577497 -2237.970140 2396.986224
-2093.539669 -2239.937225 2396.626853
-2093.501840 -2241.904309 2396.267482
-2093.464012 -2243.871394 2395.908111
-2093.426183 -2245.838478 2395.548740
-2093.388355 -2247.805563 2395.189368
-2093.350526 -2249.772647 2394.829997
-2093.312697 -2251.739732 2394.470626
-2093.274869 -2253.706816 2394.111255
-2093.237040 -2255.673901 2393.751884
-2093.199212 -2257.640985 2393.392512
-2093.161383 -2259.608070 2393.033141
-2093.123555 -2261.575154 2392.673770
-2093.085726 -2263.542239 2392.314399
-2093.047898 -2265.509323 2391.955028
-2093.010069 -2267.476407 2391.595656
-2092.972241 -2269.443492 2391.236285
-2092.934412 -2271.410576 2390.876914
-2092.896583 -2273.377661 2390.517543
-2092.858755 -2275.344745 2390.158172
-2092.820926 -2277.311830 2389.798800
-2092.783098 -2279.278914 2389.439429
-2092.745269 -2281.245999 2389.080058
-2092.707441 -2283.213083 2388.720687
-2092.669612 -2285.180168 2388.361316
-2092.631784 -2287.147252 2388.001944
-2092.593955 -2289.114337 2387.642573
-2092.556127 -2291.081421 2387.283202
-2092.518298 -2293.048506 2386.923831
-2092.480469 -2295.015590 2386.564459
-2092.442641 -2296.982675 2386.205088
-2092.404812 -2298.949759 2385.845717
-2092.366984 -2300.916844 2385.486346
-2092.329155 -2302.883928 2385.126975
-2092.291327 -2304.851013 2384.767603
-2092.253498 -2306.818097 2384.408232
-2092.215670 -2308.785181 2384.048861
-2092.177841 -2310.752266 2383.689490
-2092.140012 -2312.719350 2383.330119
-2092.102184 -2314.686435 2382.970747
-2092.064355 -2316.653519 2382.611376
-2092.026527 -2318.620604 2382.252005
-2091.988698 -2320.587688 2381.892634
-2091.950870 -2322.554773 2381.533263
-2091.913041 -2324.521857 2381.173891
-2091.875213 -2326.488942 2380.814520
-2091.837384 -2328.456026 2380.455149
-2091.799556 -2330.423111 2380.095778
-2091.761727 -2332.390195 2379.736407
-2091.723898 -2334.357280 2379.377035
-2091.686070 -2336.324364 2379.017664
-2091.648241 -2338.291449 2378.658293
-2091.610413 -2340.258533 2378.298922
-2091.572584 -2342.225618 2377.939551
-2091.534756 -2344.192702 2377.580179
-2091.496927 -2346.159787 2377.220808
-2091.459099 -2348.126871 2376.861437
-2091.421270 -2350.093956 2376.502066
-2091.383442 -2352.061040 2376.142695
-2091.345613 -2354.028124 2375.783323
-2091.307784 -2355.995209 2375.423952
-2091.269956 -2357.962293 2375.064581
-2091.232127 -2359.929378 2374.705210
-2091.194299 -2361.896462 2374.345839
-2091.156470 -2363.863547 2373.986467
-2091.118642 -2365.830631 2373.627096
-2091.080813 -2367.797716 2373.267725
-2091.042985 -2369.764800 2372.908354
-2091.005156 -2371.731885 2372.548983
-2090.967328 -2373.698969 2372.189611
-2090.929499 -2375.666054 2371.830240
-2090.891670 -2377.633138 2371.470869
-2090.853842 -2379.600223 2371.111498
-2090.816013 -2381.567307 2370.752127
-2090.778185 -2383.534392 2370.392755
-2090.740356 -2385.501476 2370.033384
-2090.702528 -2387.468561 2369.674013
-2090.664699 -2389.435645 2369.314642
-2090.626871 -2391.402730 2368.955271
-2090.589042 -2393.369814 2368.595899
-2090.551213 -2395.336898 2368.236528
-2090.513385 -2397.303983 2367.877157
-2090.475556 -2399.271067 2367.517786
-2090.437728 -2401.238152 2367.158415
-2090.399899 -2403.205236 2366.799043
-2090.362071 -2405.172321 2366.439672
-2090.324242 -2407.139405 2366.080301
-2090.286414 -2409.106490 2365.720930
-2090.248585 -2411.073574 2365.361559
-2090.210757 -2413.040659 2365.002187
-2090.172928 -2415.007743 2364.642816
-2090.135099 -2416.974828 2364.283445
-2090.097271 -2418.941912 2363.924074
-2090.059442 -2420.908997 2363.564703
-2090.021614 -2422.876081 2363.205331
-2089.983785 -2424.843166 2362.845960
-2089.945957 -2426.810250 2362.486589
-2089.908128 -2428.777335 2362.127218
-2089.870300 -2430.744419 2361.767847
-2089.832471 -2432.711504 2361.408475
-2089.794643 -2434.678588 2361.049104
-2089.756814 -2436.645672 2360.689733
-2089.718985 -2438.612757 2360.330362
-2089.681157 -2440.579841 2359.970991
-2089.643328 -2442.546926 2359.611619
-2089.605500 -2444.514010 2359.252248
-2089.567671 -2446.481095 2358.892877
-2089.529843 -2448.448179 2358.533506
-2089.492014 -2450.415264 2358.174134
-2089.454186 -2452.382348 2357.814763
-2089.416357 -2454.349433 2357.455392
-2089.378529 -2456.316517 2357.096021
-2089.340700 -2458.283602 2356.736650
-2089.302871 -2460.250686 2356.377278
-2089.265043 -2462.217771 2356.017907
-2089.227214 -2464.184855 2355.658536
-2089.189386 -2466.151940 2355.299165
-2089.151557 -2468.119024 2354.939794
-2089.113729 -2470.086109 2354.580422
-2089.075900 -2472.053193 2354.221051
-2089.038072 -2474.020278 2353.861680
-2089.000243 -2475.987362 2353.502309
-2088.962414 -2477.954447 2353.142938
-2088.924586 -2479.921531 2352.783566
-2088.886757 -2481.888615 2352.424195
-2088.848929 -2483.855700 2352.064824
-2088.811100 -2485.822784 2351.705453
-2088.773272 -2487.789869 2351.346082
-2088.735443 -2489.756953 2350.986710
-2088.697615 -2491.724038 2350.627339
-2088.659786 -2493.691122 2350.267968
-2088.621958 -2495.658207 2349.908597
-2088.584129 -2497.625291 2349.549226
-2088.546300 -2499.592376 2349.189854
-2088.508472 -2501.559460 2348.830483
-2088.470643 -2503.526545 2348.471112
-2088.432815 -2505.493629 2348.111741
-2088.394986 -2507.460714 2347.752370
-2088.357158 -2509.427798 2347.392998
-2088.319329 -2511.394883 2347.033627
-2088.281501 -2513.361967 2346.674256
-2088.243672 -2515.329052 2346.314885
-2088.205844 -2517.296136 2345.955514
-2088.168015 -2519.263221 2345.596142
-2088.130186 -2521.230305 2345.236771
-2088.092358 -2523.197389 2344.877400
-2088.054529 -2525.164474 2344.518029
-2088.016701 -2527.131558 2344.158658
-2087.978872 -2529.098643 2343.799286
-2087.941044 -2531.065727 2343.439915
-2087.903215 -2533.032812 2343.080544
-2087.865387 -2534.999896 2342.721173
-2087.827558 -2536.966981 2342.361802
-2087.789730 -2538.934065 2342.002430
-2087.751901 -2540.901150 2341.643059
-2087.714072 -2542.868234 2341.283688
-2087.676244 -2544.835319 2340.924317
-2087.638415 -2546.802403 2340.564946
-2087.600587 -2548.769488 2340.205574
-2087.562758 -2550.736572 2339.846203
-2087.524930 -2552.703657 2339.486832
-2087.487101 -2554.670741 2339.127461
-2087.449273 -2556.637826 2338.768090
-2087.411444 -2558.604910 2338.408718
-2087.373615 -2560.571995 2338.049347
-2087.335787 -2562.539079 2337.689976
-2087.297958 -2564.506164 2337.330605
-2087.260130 -2566.473248 2336.971234
-2087.222301 -2568.440332 2336.611862
-2087.184473 -2570.407417 2336.252491
-2087.146644 -2572.374501 2335.893120
-2087.108816 -2574.341586 2335.533749
-2087.070987 -2576.308670 2335.174378
-2087.033159 -2578.275755 2334.815006
-2086.995330 -2580.242839 2334.455635
-2086.957501 -2582.209924 2334.096264
-2086.919673 -2584.177008 2333.736893
-2086.881844 -2586.144093 2333.377522
-2086.844016 -2588.111177 2333.018150
-2086.806187 -2590.078262 2332.658779
-2086.768359 -2592.045346 2332.299408
-2086.730530 -2594.012431 2331.940037
-2086.692702 -2595.979515 2331.580666
-2086.654873 -2597.946600 2331.221294
-2086.617045 -2599.913684 2330.861923
-2086.579216 -2601.880769 2330.502552
-2086.541387 -2603.847853 2330.143181
-2086.503559 -2605.814938 2329.783809
-2086.465730 -2607.782022 2329.424438
-2086.427902 -2609.749106 2329.065067
-2086.390073 -2611.716191 2328.705696
-2086.352245 -2613.683275 2328.346325
-2086.314416 -2615.650360 2327.986953
-2086.276588 -2617.617444 2327.627582
-2086.238759 -2619.584529 2327.268211
-2086.200931 -2621.551613 2326.908840
-2086.163102 -2623.518698 2326.549469
-2086.125273 -2625.485782 2326.190097
-2086.087445 -2627.452867 2325.830726
-2086.049616 -2629.419951 2325.471355
-2086.011788 -2631.387036 2325.111984
-2085.973959 -2633.354120 2324.752613
-2085.936131 -2635.321205 2324.393241
-2085.898302 -2637.288289 2324.033870
-2085.860474 -2639.255374 2323.674499
-2085.822645 -2641.222458 2323.315128
-2085.784816 -2643.189543 2322.955757
-2085.746988 -2645.156627 2322.596385
-2085.709159 -2647.123712 2322.237014
-2085.671331 -2649.090796 2321.877643
-2085.633502 -2651.057880 2321.518272
-2085.595674 -2653.024965 2321.158901
-2085.557845 -2654.992049 2320.799529
-2085.520017 -2656.959134 2320.440158
-2085.482188 -2658.926218 2320.080787
-2085.444360 -2660.893303 2319.721416
-2085.406531 -2662.860387 2319.362045
-2085.368702 -2664.827472 2319.002673
-2085.330874 -2666.794556 2318.643302
-2085.293045 -2668.761641 2318.283931
-2085.255217 -2670.728725 2317.924560
-2085.217388 -2672.695810 2317.565189
-2085.179560 -2674.662894 2317.205817
-2085.141731 -2676.629979 2316.846446
-2085.103903 -2678.597063 2316.487075
-2085.066074 -2680.564148 2316.127704
-2085.028246 -2682.531232 2315.768333
-2084.990417 -2684.498317 2315.408961
-2084.952588 -2686.465401 2315.049590
-2084.914760 -2688.432486 2314.690219
-2084.876931 -2690.399570 2314.330848
-2084.839103 -2692.366655 2313.971477
-2084.801274 -2694.333739 2313.612105
-2084.763446 -2696.300823 2313.252734
-2084.725617 -2698.267908 2312.893363
-2084.687789 -2700.234992 2312.533992
-2084.649960 -2702.202077 2312.174621
-2084.612132 -2704.169161 2311.815249
-2084.574303 -2706.136246 2311.455878
-2084.536474 -2708.103330 2311.096507
-2084.498646 -2710.070415 2310.737136
-2084.460817 -2712.037499 2310.377765
-2084.422989 -2714.004584 2310.018393
-2084.385160 -2715.971668 2309.659022
-2084.347332 -2717.938753 2309.299651
-2084.309503 -2719.905837 2308.940280
-2084.271675 -2721.872922 2308.580909
-2084.233846 -2723.840006 2308.221537
-2084.196017 -2725.807091 2307.862166
-2084.158189 -2727.774175 2307.502795
-2084.120360 -2729.741260 2307.143424
-2084.082532 -2731.708344 2306.784053
-2084.044703 -2733.675429 2306.424681
-2084.006875 -2735.642513 2306.065310
-2083.969046 -2737.609597 2305.705939
-2083.931218 -2739.576682 2305.346568
-2083.893389 -2741.543766 2304.987197
-2083.855561 -2743.510851 2304.627825
-2083.817732 -2745.477935 2304.268454
-2083.779903 -2747.445020 2303.909083
-2083.742075 -2749.412104 2303.549712
-2083.704246 -2751.379189 2303.190341
-2083.666418 -2753.346273 2302.830969
-2083.628589 -2755.313358 2302.471598
-2083.590761 -2757.280442 2302.112227
-2083.552932 -2759.247527 2301.752856
-2083.515104 -2761.214611 2301.393484
-2083.477275 -2763.181696 2301.034113
-2083.439447 -2765.148780 2300.674742
-2083.401618 -2767.115865 2300.315371
-2083.363789 -2769.082949 2299.956000
-2083.325961 -2771.050034 2299.596628
-2083.288132 -2773.017118 2299.237257
-2083.250304 -2774.984203 2298.877886
-2083.212475 -2776.951287 2298.518515
-2083.174647 -2778.918371 2298.159144
-2083.136818 -2780.885456 2297.799772
-2083.098990 -2782.852540 2297.440401
-2083.061161 -2784.819625 2297.081030
-2083.023333 -2786.786709 2296.721659
-2082.985504 -2788.753794 2296.362288
-2082.947675 -2790.720878 2296.002916
-2082.909847 -2792.687963 2295.643545
-2082.872018 -2794.655047 2295.284174
-2082.834190 -2796.622132 2294.924803
-2082.796361 -2798.589216 2294.565432
-2082.758533 -2800.556301 2294.206060
-2082.720704 -2802.523385 2293.846689
-2082.682876 -2804.490470 2293.487318
-2082.645047 -2806.457554 2293.127947
-2082.607218 -2808.424639 2292.768576
-2082.569390 -2810.391723 2292.409204
-2082.531561 -2812.358808 2292.049833
-2082.493733 -2814.325892 2291.690462
-2082.455904 -2816.292977 2291.331091
-2082.418076 -2818.260061 2290.971720
-2082.380247 -2820.227146 2290.612348
-2082.342419 -2822.194230 2290.252977
-2082.304590 -2824.161314 2289.893606
-2082.266762 -2826.128399 2289.534235
-2082.228933 -2828.095483 2289.174864
-2082.191104 -2830.062568 2288.815492
-2082.153276 -2832.029652 2288.456121
-2082.115447 -2833.996737 2288.096750
-2082.077619 -2835.963821 2287.737379
-2082.039790 -2837.930906 2287.378008
-2082.001962 -2839.897990 2287.018636
-2081.964133 -2841.865075 2286.659265
-2081.926305 -2843.832159 2286.299894
-2081.888476 -2845.799244 2285.940523
-2081.850648 -2847.766328 2285.581152
-2081.812819 -2849.733413 2285.221780
-2081.774990 -2851.700497 2284.862409
-2081.737162 -2853.667582 2284.503038
-2081.699333 -2855.634666 2284.143667
-2081.661505 -2857.601751 2283.784296
-2081.623676 -2859.568835 2283.424924
-2081.585848 -2861.535920 2283.065553
-2081.548019 -2863.503004 2282.706182
-2081.510191 -2865.470088 2282.346811
-2081.472362 -2867.437173 2281.987440
-2081.434534 -2869.404257 2281.628068
-2081.396705 -2871.371342 2281.268697
-2081.358876 -2873.338426 2280.909326
-2081.321048 -2875.305511 2280.549955
-2081.283219 -2877.272595 2280.190584
-2081.245391 -2879.239680 2279.831212
-2081.207562 -2881.206764 2279.471841
-2081.169734 -2883.173849 2279.112470
-2081.131905 -2885.140933 2278.753099
-2081.094077 -2887.108018 2278.393728
-2081.056248 -2889.075102 2278.034356
-2081.018419 -2891.042187 2277.674985
-2080.980591 -2893.009271 2277.315614
-2080.942762 -2894.976356 2276.956243
-2080.904934 -2896.943440 2276.596872
-2080.867105 -2898.910525 2276.237500
-2080.829277 -2900.877609 2275.878129
-2080.791448 -2902.844694 2275.518758
-2080.753620 -2904.811778 2275.159387
-2080.715791 -2906.778863 2274.800016
-2080.677963 -2908.745947 2274.440644
-2080.640134 -2910.713031 2274.081273
-2080.602305 -2912.680116 2273.721902
-2080.564477 -2914.647200 2273.362531
-2080.526648 -2916.614285 2273.003159
-2080.488820 -2918.581369 2272.643788
-2080.450991 -2920.548454 2272.284417
-2080.413163 -2922.515538 2271.925046
-2080.375334 -2924.482623 2271.565675
-2080.337506 -2926.449707 2271.206303
-2080.299677 -2928.416792 2270.846932
-2080.261849 -2930.383876 2270.487561
-2080.224020 -2932.350961 2270.128190
-2080.186191 -2934.318045 2269.768819
-2080.148363 -2936.285130 2269.409447
-2080.110534 -2938.252214 2269.050076
-2080.072706 -2940.219299 2268.690705
-2080.034877 -2942.186383 2268.331334
-2079.997049 -2944.153468 2267.971963
-2079.959220 -2946.120552 2267.612591
-2079.921392 -2948.087637 2267.253220
-2079.883563 -2950.054721 2266.893849
-2079.845735 -2952.021805 2266.534478
-2079.807906 -2953.988890 2266.175107
-2079.770077 -2955.955974 2265.815735
-2079.732249 -2957.923059 2265.456364
-2079.694420 -2959.890143 2265.096993
-2079.656592 -2961.857228 2264.737622
-2079.618763 -2963.824312 2264.378251
-2079.580935 -2965.791397 2264.018879
-2079.543106 -2967.758481 2263.659508
-2079.505278 -2969.725566 2263.300137
-2079.467449 -2971.692650 2262.940766
-2079.429620 -2973.659735 2262.581395
-2079.391792 -2975.626819 2262.222023
-2079.353963 -2977.593904 2261.862652
-2079.316135 -2979.560988 2261.503281
-2079.278306 -2981.528073 2261.143910
-2079.240478 -2983.495157 2260.784539
-2079.202649 -2985.462242 2260.425167
-2079.164821 -2987.429326 2260.065796
-2079.126992 -2989.396411 2259.706425
-2079.089164 -2991.363495 2259.347054
-2079.051335 -2993.330579 2258.987683
-2079.013506 -2995.297664 2258.628311
-2078.975678 -2997.264748 2258.268940
-2078.937849 -2999.231833 2257.909569
-2078.900021 -3001.198917 2257.550198
-2078.862192 -3003.166002 2257.190827
-2078.824364 -3005.133086 2256.831455
-2078.786535 -3007.100171 2256.472084
-2078.748707 -3009.067255 2256.112713
-2078.710878 -3011.034340 2255.753342
-2078.673050 -3013.001424 2255.393971
-2078.635221 -3014.968509 2255.034599
-2078.597392 -3016.935593 2254.675228
-2078.559564 -3018.902678 2254.315857
-2078.521735 -3020.869762 2253.956486
-2078.483907 -3022.836847 2253.597115
-2078.446078 -3024.803931 2253.237743
-2078.408250 -3026.771016 2252.878372
-2078.370421 -3028.738100 2252.519001
-2078.332593 -3030.705185 2252.159630
-2078.294764 -3032.672269 2251.800259
-2078.256936 -3034.639354 2251.440887
-2078.219107 -3036.606438 2251.081516
-2078.181278 -3038.573522 2250.722145
-2078.143450 -3040.540607 2250.362774
-2078.105621 -3042.507691 2250.003403
-2078.067793 -3044.474776 2249.644031
-2078.029964 -3046.441860 2249.284660
-2077.992136 -3048.408945 2248.925289
-2077.954307 -3050.376029 2248.565918
-2077.916479 -3052.343114 2248.206547
-2077.878650 -3054.310198 2247.847175
-2077.840821 -3056.277283 2247.487804
-2077.802993 -3058.244367 2247.128433
-2077.765164 -3060.211452 2246.769062
-2077.727336 -3062.178536 2246.409691
-2077.689507 -3064.145621 2246.050319
-2077.651679 -3066.112705 2245.690948
-2077.613850 -3068.079790 2245.331577
-2077.576022 -3070.046874 2244.972206
-2077.538193 -3072.013959 2244.612834
-2077.500365 -3073.981043 2244.253463
-2077.462536 -3075.948128 2243.894092
-2077.424707 -3077.915212 2243.534721
-2077.386879 -3079.882296 2243.175350
-2077.349050 -3081.849381 2242.815978
-2077.311222 -3083.816465 2242.456607
-2077.273393 -3085.783550 2242.097236
-2077.235565 -3087.750634 2241.737865
-2077.197736 -3089.717719 2241.378494
-2077.159908 -3091.684803 2241.019122
-2077.122079 -3093.651888 2240.659751
-2077.084251 -3095.618972 2240.300380
-2077.046422 -3097.586057 2239.941009
-2077.008593 -3099.553141 2239.581638
-2076.970765 -3101.520226 2239.222266
-2076.932936 -3103.487310 2238.862895
-2076.895108 -3105.454395 2238.503524
-2076.857279 -3107.421479 2238.144153
-2076.819451 -3109.388564 2237.784782
-2076.781622 -3111.355648 2237.425410
-2076.743794 -3113.322733 2237.066039
-2076.705965 -3115.289817 2236.706668
-2076.668137 -3117.256902 2236.347297
-2076.630308 -3119.223986 2235.987926
-2076.592479 -3121.191071 2235.628554
-2076.554651 -3123.158155 2235.269183
-2076.516822 -3125.125239 2234.909812
-2076.478994 -3127.092324 2234.550441
-2076.441165 -3129.059408 2234.191070
-2076.403337 -3131.026493 2233.831698
-2076.365508 -3132.993577 2233.472327
-2076.327680 -3134.960662 2233.112956
-2076.289851 -3136.927746 2232.753585
-2076.252022 -3138.894831 2232.394214
-2076.214194 -3140.861915 2232.034842
-2076.176365 -3142.829000 2231.675471
-2076.138537 -3144.796084 2231.316100
-2076.100708 -3146.763169 2230.956729
-2076.062880 -3148.730253 2230.597358
-2076.025051 -3150.697338 2230.237986
-2075.987223 -3152.664422 2229.878615
-2075.949394 -3154.631507 2229.519244
-2075.911566 -3156.598591 2229.159873
-2075.873737 -3158.565676 2228.800502
-2075.835908 -3160.532760 2228.441130
-2075.798080 -3162.499845 2228.081759
-2075.760251 -3164.466929 2227.722388
-2075.722423 -3166.434013 2227.363017
-2075.684594 -3168.401098 2227.003646
-2075.646766 -3170.368182 2226.644274
-2075.608937 -3172.335267 2226.284903
-2075.571109 -3174.302351 2225.925532
-2075.533280 -3176.269436 2225.566161
-2075.495452 -3178.236520 2225.206790
-2075.457623 -3180.203605 2224.847418
-2075.419794 -3182.170689 2224.488047
-2075.381966 -3184.137774 2224.128676
-2075.344137 -3186.104858 2223.769305
-2075.306309 -3188.071943 2223.409934
-2075.268480 -3190.039027 2223.050562
-2075.230652 -3192.006112 2222.691191
-2075.192823 -3193.973196 2222.331820
-2075.154995 -3195.940281 2221.972449
-2075.117166 -3197.907365 2221.613078
-2075.079338 -3199.874450 2221.253706
-2075.041509 -3201.841534 2220.894335
-2075.003680 -3203.808619 2220.534964
-2074.965852 -3205.775703 2220.175593
-2074.928023 -3207.742787 2219.816222
-2074.890195 -3209.709872 2219.456850
-2074.852366 -3211.676956 2219.097479
-2074.814538 -3213.644041 2218.738108
-2074.776709 -3215.611125 2218.378737
-2074.738881 -3217.578210 2218.019366
-2074.701052 -3219.545294 2217.659994
-2074.663223 -3221.512379 2217.300623
-2074.625395 -3223.479463 2216.941252
-2074.587566 -3225.446548 2216.581881
-2074.549738 -3227.413632 2216.222509
-2074.511909 -3229.380717 2215.863138
-2074.474081 -3231.347801 2215.503767
-2074.436252 -3233.314886 2215.144396
-2074.398424 -3235.281970 2214.785025
-2074.360595 -3237.249055 2214.425653
-2074.322767 -3239.216139 2214.066282
-2074.284938 -3241.183224 2213.706911
-2074.247109 -3243.150308 2213.347540
-2074.209281 -3245.117393 2212.988169
-2074.171452 -3247.084477 2212.628797
-2074.133624 -3249.051562 2212.269426
-2074.095795 -3251.018646 2211.910055
-2074.057967 -3252.985730 2211.550684
-2074.020138 -3254.952815 2211.191313
-2073.982310 -3256.919899 2210.831941
-2073.944481 -3258.886984 2210.472570
-2073.906653 -3260.854068 2210.113199
-2073.868824 -3262.821153 2209.753828
-2073.830995 -3264.788237 2209.394457
-2073.793167 -3266.755322 2209.035085
-2073.755338 -3268.722406 2208.675714
-2073.717510 -3270.689491 2208.316343
-2073.679681 -3272.656575 2207.956972
-2073.641853 -3274.623660 2207.597601
-2073.604024 -3276.590744 2207.238229
-2073.566196 -3278.557829 2206.878858
-2073.528367 -3280.524913 2206.519487
-2073.490539 -3282.491998 2206.160116
-2073.452710 -3284.459082 2205.800745
-2073.414881 -3286.426167 2205.441373
-2073.377053 -3288.393251 2205.082002
-2073.339224 -3290.360336 2204.722631
-2073.301396 -3292.327420 2204.363260
-2073.263567 -3294.294504 2204.003889
-2073.225739 -3296.261589 2203.644517
-2073.187910 -3298.228673 2203.285146
-2073.150082 -3300.195758 2202.925775
-2073.112253 -3302.162842 2202.566404
-2073.074424 -3304.129927 2202.207033
-2073.036596 -3306.097011 2201.847661
-2072.998767 -3308.064096 2201.488290
-2072.960939 -3310.031180 2201.128919
-2072.923110 -3311.998265 2200.769548
-2072.885282 -3313.965349 2200.410177
-2072.847453 -3315.932434 2200.050805
-2072.809625 -3317.899518 2199.691434
-2072.771796 -3319.866603 2199.332063
-2072.733968 -3321.833687 2198.972692
-2072.696139 -3323.800772 2198.613321
-2072.658310 -3325.767856 2198.253949
-2072.620482 -3327.734941 2197.894578
-2072.582653 -3329.702025 2197.535207
-2072.544825 -3331.669110 2197.175836
-2072.506996 -3333.636194 2196.816465
-2072.469168 -3335.603278 2196.457093
-2072.431339 -3337.570363 2196.097722
-2072.393511 -3339.537447 2195.738351
-2072.355682 -3341.504532 2195.378980
-2072.317854 -3343.471616 2195.019609
-2072.280025 -3345.438701 2194.660237
-2072.242196 -3347.405785 2194.300866
-2072.204368 -3349.372870 2193.941495
-2072.166539 -3351.339954 2193.582124
-2072.128711 -3353.307039 2193.222753
-2072.090882 -3355.274123 2192.863381
-2072.053054 -3357.241208 2192.504010
-2072.015225 -3359.208292 2192.144639
-2071.977397 -3361.175377 2191.785268
-2071.939568 -3363.142461 2191.425897
-2071.901740 -3365.109546 2191.066525
-2071.863911 -3367.076630 2190.707154
-2071.826082 -3369.043715 2190.347783
-2071.788254 -3371.010799 2189.988412
-2071.750425 -3372.977884 2189.629041
-2071.712597 -3374.944968 2189.269669
-2071.674768 -3376.912053 2188.910298
-2071.636940 -3378.879137 2188.550927
-2071.599111 -3380.846221 2188.191556
-2071.561283 -3382.813306 2187.832184
-2071.523454 -3384.780390 2187.472813
-2071.485625 -3386.747475 2187.113442
-2071.447797 -3388.714559 2186.754071
-2071.409968 -3390.681644 2186.394700
-2071.372140 -3392.648728 2186.035328
-2071.334311 -3394.615813 2185.675957
-2071.296483 -3396.582897 2185.316586
-2071.258654 -3398.549982 2184.957215
-2071.220826 -3400.517066 2184.597844
-2071.182997 -3402.484151 2184.238472
-2071.145169 -3404.451235 2183.879101
-2071.107340 -3406.418320 2183.519730
-2071.069511 -3408.385404 2183.160359
-2071.031683 -3410.352489 2182.800988
-2070.993854 -3412.319573 2182.441616
-2070.956026 -3414.286658 2182.082245
-2070.918197 -3416.253742 2181.722874
-2070.880369 -3418.220827 2181.363503
-2070.842540 -3420.187911 2181.004132
-2070.804712 -3422.154995 2180.644760
-2070.766883 -3424.122080 2180.285389
-2070.729055 -3426.089164 2179.926018
-2070.691226 -3428.056249 2179.566647
-2070.653397 -3430.023333 2179.207276
-2070.615569 -3431.990418 2178.847904
-2070.577740 -3433.957502 2178.488533
-2070.539912 -3435.924587 2178.129162
-2070.502083 -3437.891671 2177.769791
-2070.464255 -3439.858756 2177.410420
-2070.426426 -3441.825840 2177.051048
-2070.388598 -3443.792925 2176.691677
-2070.350769 -3445.760009 2176.332306
-2070.312941 -3447.727094 2175.972935
-2070.275112 -3449.694178 2175.613564
-2070.237283 -3451.661263 2175.254192
-2070.199455 -3453.628347 2174.894821
-2070.161626 -3455.595432 2174.535450
-2070.123798 -3457.562516 2174.176079
-2070.085969 -3459.529601 2173.816708
-2070.048141 -3461.496685 2173.457336
-2070.010312 -3463.463770 2173.097965
-2069.972484 -3465.430854 2172.738594
-2069.934655 -3467.397938 2172.379223
-2069.896826 -3469.365023 2172.019852
-2069.858998 -3471.332107 2171.660480
-2069.821169 -3473.299192 2171.301109
-2069.783341 -3475.266276 2170.941738
-2069.745512 -3477.233361 2170.582367
-2069.707684 -3479.200445 2170.222996
-2069.669855 -3481.167530 2169.863624
-2069.632027 -3483.134614 2169.504253
-2069.594198 -3485.101699 2169.144882
-2069.556370 -3487.068783 2168.785511
-2069.518541 -3489.035868 2168.426140
-2069.480712 -3491.002952 2168.066768
-2069.442884 -3492.970037 2167.707397
-2069.405055 -3494.937121 2167.348026
-2069.367227 -3496.904206 2166.988655
-2069.329398 -3498.871290 2166.629284
-2069.291570 -3500.838375 2166.269912
-2069.253741 -3502.805459 2165.910541
-2069.215913 -3504.772544 2165.551170
-2069.178084 -3506.739628 2165.191799
-2069.140256 -3508.706712 2164.832428
-2069.102427 -3510.673797 2164.473056
-2069.064598 -3512.640881 2164.113685
-2069.026770 -3514.607966 2163.754314
-2068.988941 -3516.575050 2163.394943
-2068.951113 -3518.542135 2163.035572
-2068.913284 -3520.509219 2162.676200
-2068.875456 -3522.476304 2162.316829
-2068.837627 -3524.443388 2161.957458
-2068.799799 -3526.410473 2161.598087
-2068.761970 -3528.377557 2161.238716
-2068.724142 -3530.344642 2160.879344
-2068.686313 -3532.311726 2160.519973
-2068.648484 -3534.278811 2160.160602
-2068.610656 -3536.245895 2159.801231
-2068.572827 -3538.212980 2159.441859
-2068.534999 -3540.180064 2159.082488
-2068.497170 -3542.147149 2158.723117
-2068.459342 -3544.114233 2158.363746
-2068.421513 -3546.081318 2158.004375
-2068.383685 -3548.048402 2157.645003
-2068.345856 -3550.015486 2157.285632
-2068.308027 -3551.982571 2156.926261
-2068.270199 -3553.949655 2156.566890
-2068.232370 -3555.916740 2156.207519
-2068.194542 -3557.883824 2155.848147
-2068.156713 -3559.850909 2155.488776
-2068.118885 -3561.817993 2155.129405
-2068.081056 -3563.785078 2154.770034
-2068.043228 -3565.752162 2154.410663
-2068.005399 -3567.719247 2154.051291
-2067.967571 -3569.686331 2153.691920
-2067.929742 -3571.653416 2153.332549
-2067.891913 -3573.620500 2152.973178
-2067.854085 -3575.587585 2152.613807
-2067.816256 -3577.554669 2152.254435
-2067.778428 -3579.521754 2151.895064
-2067.740599 -3581.488838 2151.535693
-2067.702771 -3583.455923 2151.176322
-2067.664942 -3585.423007 2150.816951
-2067.627114 -3587.390092 2150.457579
-2067.589285 -3589.357176 2150.098208
-2067.551457 -3591.324261 2149.738837
-2067.513628 -3593.291345 2149.379466
-2067.475799 -3595.258429 2149.020095
-2067.437971 -3597.225514 2148.660723
-2067.400142 -3599.192598 2148.301352
-2067.362314 -3601.159683 2147.941981
-2067.324485 -3603.126767 2147.582610
-2067.286657 -3605.093852 2147.223239
-2067.248828 -3607.060936 2146.863867
-2067.211000 -3609.028021 2146.504496
-2067.173171 -3610.995105 2146.145125
-2067.135343 -3612.962190 2145.785754
-2067.097514 -3614.929274 2145.426383
-2067.059685 -3616.896359 2145.067011
-2067.021857 -3618.863443 2144.707640
-2066.984028 -3620.830528 2144.348269
-2066.946200 -3622.797612 2143.988898
-2066.908371 -3624.764697 2143.629527
-2066.870543 -3626.731781 2143.270155
-2066.832714 -3628.698866 2142.910784
-2066.794886 -3630.665950 2142.551413
-2066.757057 -3632.633035 2142.192042
-2066.719228 -3634.600119 2141.832671
-2066.681400 -3636.567203 2141.473299
-2066.643571 -3638.534288 2141.113928
-2066.605743 -3640.501372 2140.754557
-2066.567914 -3642.468457 2140.395186
-2066.530086 -3644.435541 2140.035815
-2066.492257 -3646.402626 2139.676443
-2066.454429 -3648.369710 2139.317072
-2066.416600 -3650.336795 2138.957701
-2066.378772 -3652.303879 2138.598330
-2066.340943 -3654.270964 2138.238959
-2066.303114 -3656.238048 2137.879587
-2066.265286 -3658.205133 2137.520216
-2066.227457 -3660.172217 2137.160845
-2066.189629 -3662.139302 2136.801474
-2066.151800 -3664.106386 2136.442103
-2066.113972 -3666.073471 2136.082731
-2066.076143 -3668.040555 2135.723360
-2066.038315 -3670.007640 2135.363989
-2066.000486 -3671.974724 2135.004618
-2065.962658 -3673.941809 2134.645247
-2065.924829 -3675.908893 2134.285875
-2065.887000 -3677.875977 2133.926504
-2065.849172 -3679.843062 2133.567133
-2065.811343 -3681.810146 2133.207762
-2065.773515 -3683.777231 2132.848391
-2065.735686 -3685.744315 2132.489019
-2065.697858 -3687.711400 2132.129648
-2065.660029 -3689.678484 2131.770277
-2065.622201 -3691.645569 2131.410906
-2065.584372 -3693.612653 2131.051534
-2065.546544 -3695.579738 2130.692163
-2065.508715 -3697.546822 2130.332792
-2065.470886 -3699.513907 2129.973421
-2065.433058 -3701.480991 2129.614050
-2065.395229 -3703.448076 2129.254678
-2065.357401 -3705.415160 2128.895307
-2065.319572 -3707.382245 2128.535936
-2065.281744 -3709.349329 2128.176565
-2065.243915 -3711.316414 2127.817194
